33,33,33,33,33,33,33,33,33,33,33,33,33,33,33,33,33,33,33,33,33,33,33,33,33,33,33,33,33,33,33,33,33,33,33,33,33,33,33,33,33,33,33,33,33,33,33,33,33,33,33,33,33,33,33,33,33,33,33,33,33,33,33,33,33,33,33,33,33,33,33,33,33,33,33,33,33,33,33,33,33,33,33,33,33,33,33,33,33,33,33,33,33,33,33,33,33,33,33,33,33,33,33,33,33,33,33,33,33,33,33,33,33,33,33,33,33,33,33,33,33,33,33,33,33,33,33,33
33,33,33,33,33,33,33,33,33,33,33,33,33,33,33,33,33,33,33,33,33,33,33,33,33,33,33,33,33,33,33,33,33,33,33,33,33,33,33,33,33,33,33,33,33,33,33,33,33,33,33,33,33,33,33,33,33,33,33,33,33,33,33,33,33,33,33,33,33,33,33,33,33,33,33,33,33,33,33,33,33,33,33,33,33,33,33,33,33,33,33,33,33,33,33,33,33,33,33,33,33,33,33,33,33,33,33,33,33,33,33,33,33,33,33,33,33,33,33,33,33,33,33,33,33,33,33,33
33,33,33,33,33,33,33,33,33,33,33,33,33,33,33,33,33,33,33,33,33,33,33,33,33,33,33,33,33,33,33,33,33,33,33,33,33,33,33,33,33,33,33,33,33,33,33,33,33,33,33,33,33,33,33,33,33,33,33,33,33,33,33,33,33,33,33,33,33,33,33,33,33,33,33,33,33,33,33,33,33,33,33,33,33,33,33,33,33,33,33,33,33,33,33,33,33,33,33,33,33,33,33,33,33,33,33,33,33,33,33,33,33,33,33,33,33,33,33,33,33,33,33,33,33,33,33,33
33,33,33,33,33,33,33,33,33,33,33,33,33,33,33,33,33,33,33,33,33,33,33,33,33,33,33,33,33,33,33,33,33,33,33,33,33,33,33,33,33,33,33,33,33,33,33,33,33,33,33,33,33,33,33,33,33,33,33,33,33,33,33,33,33,33,33,33,33,33,33,33,33,33,33,33,33,33,33,33,33,33,33,33,33,33,33,33,33,33,33,33,33,33,33,33,33,33,33,33,33,33,33,33,33,33,33,33,33,33,33,33,33,33,33,33,33,33,33,33,33,33,33,33,33,33,33,33
33,33,33,33,33,22,24,24,24,24,24,24,24,25,33,33,33,33,33,33,33,33,33,33,33,33,33,33,33,33,33,33,33,33,33,33,33,33,33,33,33,33,33,33,33,33,33,33,33,33,33,33,33,33,33,33,33,33,33,33,33,33,33,33,33,33,33,33,33,33,33,33,33,33,33,33,33,33,33,33,33,33,33,33,33,33,33,33,33,33,33,33,33,33,33,33,33,33,33,33,33,33,33,33,33,33,33,33,33,33,33,33,33,33,33,33,33,33,33,33,33,33,33,33,33,33,33,33
33,33,33,33,22,42,0,-1,-1,-1,-1,-1,-1,23,24,24,24,24,24,24,24,25,33,33,33,33,33,33,33,33,33,33,33,33,33,33,33,33,33,33,33,33,33,33,33,33,33,33,33,33,33,33,33,33,33,33,33,33,33,33,33,33,33,33,33,33,33,33,33,33,33,33,33,33,33,33,33,33,33,33,33,33,33,33,33,33,33,33,33,33,33,33,33,33,33,33,33,33,33,33,33,33,33,33,33,33,33,33,33,33,33,33,33,33,33,33,33,33,33,33,33,33,33,33,33,33,33,33
33,33,33,22,42,-1,-1,-1,-1,2,-1,-1,-1,-1,-1,-1,-1,-1,-1,-1,-1,23,24,24,24,24,24,24,25,33,33,33,33,33,33,33,33,33,33,33,33,33,33,33,33,33,33,33,33,22,24,24,24,24,24,24,24,24,24,24,24,24,24,24,24,24,24,25,33,33,33,33,33,33,33,33,33,33,33,33,33,33,33,33,33,33,33,33,33,33,33,33,33,33,33,33,33,33,33,33,33,33,33,33,33,33,33,33,33,33,33,33,33,33,33,33,33,33,33,33,33,33,33,33,33,33,33,33
33,33,33,32,-1,1,-1,5,0,-1,-1,-1,-1,-1,-1,-1,-1,9,-1,-1,-1,-1,-1,-1,-1,-1,-1,-1,23,24,25,33,33,33,33,33,33,33,33,33,33,33,33,33,33,33,33,22,24,42,-1,-1,-1,-1,-1,-1,-1,-1,-1,-1,-1,-1,-1,-1,-1,-1,-1,23,24,24,24,25,33,33,33,33,33,33,33,33,33,33,33,33,33,33,33,33,33,33,33,33,33,33,22,24,24,24,24,24,24,24,24,25,33,33,33,33,33,33,33,33,33,33,33,33,33,33,33,33,33,33,33,33,33,33,33,33
33,33,33,32,-1,-1,5,1,3,-1,-1,-1,-1,-1,15,16,-1,-1,-1,-1,-1,-1,-1,-1,-1,-1,19,-1,-1,-1,23,25,33,33,33,33,33,33,33,33,33,33,33,22,24,24,24,42,-1,-1,-1,-1,-1,-1,-1,-1,-1,-1,-1,-1,-1,-1,-1,-1,-1,-1,-1,-1,-1,-1,-1,23,24,25,33,33,33,33,33,33,33,33,33,33,33,33,33,33,33,33,33,22,24,24,42,-1,-1,-1,-1,-1,-1,-1,-1,23,24,25,33,33,33,33,33,33,33,33,33,33,33,33,33,33,33,33,33,33,33,33,33,33
33,33,33,32,-1,-1,-1,4,-1,0,-1,-1,-1,-1,-1,-1,-1,-1,-1,-1,-1,-1,-1,-1,-1,-1,0,-1,-1,2,-1,23,25,33,33,33,33,33,33,33,33,33,22,42,-1,-1,-1,-1,-1,-1,-1,-1,-1,-1,-1,-1,-1,-1,-1,-1,-1,-1,-1,-1,-1,-1,-1,-1,-1,-1,-1,-1,-1,45,33,33,33,33,33,33,33,33,33,33,33,33,33,33,33,22,24,42,-1,-1,-1,-1,-1,-1,0,-1,-1,2,-1,-1,-1,23,24,24,24,25,33,33,33,33,33,33,33,33,33,33,33,33,33,33,33,33,33,33
33,33,33,32,9,-1,0,-1,-1,-1,-1,-1,-1,-1,-1,-1,-1,-1,-1,-1,-1,-1,-1,-1,-1,1,-1,5,0,-1,-1,-1,23,25,33,33,33,33,33,33,33,33,32,-1,-1,19,-1,2,-1,-1,-1,-1,-1,1,-1,-1,-1,-1,-1,-1,-1,-1,-1,-1,-1,-1,-1,-1,-1,-1,-1,-1,-1,45,33,33,33,33,33,33,33,33,33,33,33,33,33,33,22,42,-1,-1,-1,-1,19,-1,-1,1,-1,5,0,-1,-1,-1,0,-1,-1,-1,-1,23,24,25,33,33,33,33,33,33,33,33,33,33,33,33,33,33,33,33
33,33,33,32,-1,-1,-1,-1,-1,-1,-1,-1,-1,-1,-1,-1,-1,-1,-1,-1,-1,-1,-1,-1,-1,-1,5,1,3,-1,-1,-1,-1,45,33,33,33,33,33,33,33,33,32,1,-1,5,0,-1,-1,-1,-1,-1,-1,-1,-1,-1,-1,-1,-1,-1,-1,-1,-1,-1,-1,-1,-1,-1,-1,-1,-1,-1,-1,45,33,33,33,33,33,33,33,33,33,33,33,33,33,22,42,-1,-1,-1,-1,-1,-1,-1,-1,-1,5,1,3,-1,0,-1,-1,-1,-1,-1,-1,-1,-1,23,25,33,33,33,33,33,33,33,33,33,33,33,33,33,33,33
33,33,33,32,2,-1,-1,-1,-1,-1,-1,-1,-1,-1,-1,-1,-1,-1,-1,-1,-1,-1,-1,-1,-1,-1,-1,4,-1,0,-1,-1,-1,45,33,33,33,33,33,33,33,33,32,-1,5,1,3,-1,19,-1,-1,-1,-1,-1,-1,-1,-1,-1,-1,-1,-1,-1,-1,1,-1,-1,-1,-1,-1,-1,-1,-1,-1,45,33,33,33,33,33,33,33,33,33,33,33,22,24,42,-1,-1,-1,-1,-1,-1,-1,-1,-1,-1,-1,4,-1,0,-1,-1,-1,-1,-1,-1,-1,-1,-1,-1,23,25,33,33,33,33,33,33,33,33,33,33,33,33,33,33
33,33,33,52,54,-1,-1,-1,-1,-1,-1,-1,-1,-1,-1,-1,-1,-1,-1,-1,-1,-1,-1,-1,-1,-1,-1,-1,-1,-1,-1,-1,-1,45,33,33,33,33,33,33,33,33,52,54,-1,4,-1,0,-1,-1,-1,-1,-1,-1,-1,-1,-1,-1,-1,-1,-1,-1,-1,-1,-1,-1,-1,-1,-1,-1,-1,-1,-1,45,33,33,33,33,33,33,33,33,33,33,22,42,-1,-1,-1,-1,-1,-1,-1,-1,-1,-1,-1,-1,-1,3,-1,-1,-1,-1,-1,-1,-1,15,16,-1,-1,-1,-1,23,25,33,33,33,33,33,33,33,33,33,33,33,33,33
33,33,33,33,32,-1,-1,-1,-1,-1,-1,-1,-1,-1,1,-1,-1,-1,-1,-1,-1,-1,-1,-1,-1,-1,-1,-1,-1,-1,-1,-1,35,55,33,33,33,33,33,33,33,33,33,32,-1,0,-1,-1,-1,-1,-1,-1,-1,-1,-1,-1,-1,-1,-1,-1,-1,-1,-1,-1,-1,-1,-1,-1,-1,-1,-1,-1,-1,45,33,33,33,33,33,33,33,33,33,22,42,-1,-1,-1,-1,-1,-1,-1,-1,-1,-1,-1,-1,-1,-1,-1,-1,-1,-1,-1,-1,-1,-1,-1,-1,-1,19,-1,-1,-1,23,25,33,33,33,33,33,33,33,33,33,33,33,33
33,33,33,33,52,54,-1,-1,-1,-1,-1,-1,-1,-1,-1,-1,-1,-1,-1,-1,-1,-1,-1,-1,-1,-1,-1,-1,-1,-1,-1,35,55,33,33,33,33,33,33,33,33,33,33,52,54,-1,2,-1,-1,-1,-1,-1,-1,-1,-1,-1,-1,-1,-1,-1,-1,-1,-1,-1,-1,-1,-1,-1,-1,-1,-1,35,53,55,33,33,33,33,33,33,33,33,33,32,-1,-1,-1,-1,-1,-1,-1,-1,-1,-1,-1,-1,-1,-1,-1,-1,-1,-1,-1,-1,-1,-1,-1,-1,-1,-1,-1,-1,-1,-1,-1,45,33,33,33,33,33,33,33,33,33,33,33,33
33,33,33,33,33,32,-1,-1,-1,-1,-1,-1,-1,-1,-1,-1,-1,-1,-1,-1,-1,-1,-1,-1,-1,-1,-1,-1,-1,-1,-1,45,33,33,33,33,33,33,33,33,33,33,33,33,32,-1,-1,-1,-1,-1,-1,-1,-1,-1,-1,-1,-1,-1,2,0,-1,-1,-1,-1,-1,-1,-1,-1,-1,-1,-1,45,33,33,33,33,33,33,33,33,33,33,33,32,-1,-1,-1,-1,2,-1,-1,-1,-1,-1,-1,-1,-1,-1,-1,-1,-1,-1,-1,-1,-1,-1,-1,-1,-1,-1,-1,-1,-1,-1,-1,45,33,33,33,33,33,33,33,33,33,33,33,33
33,33,33,33,33,52,54,-1,-1,-1,-1,-1,-1,-1,-1,-1,-1,-1,-1,-1,-1,-1,-1,-1,-1,-1,-1,-1,-1,-1,35,55,33,33,33,33,33,33,33,33,33,33,33,33,52,54,-1,-1,-1,-1,-1,-1,-1,-1,-1,1,-1,-1,-1,-1,-1,-1,-1,-1,-1,-1,-1,-1,-1,-1,35,55,33,33,33,33,33,33,33,33,33,33,33,32,-1,-1,-1,-1,-1,-1,-1,-1,-1,-1,-1,-1,-1,-1,-1,-1,-1,-1,-1,-1,-1,-1,-1,-1,-1,-1,-1,-1,-1,-1,-1,45,33,33,33,33,33,33,33,33,33,33,33,33
33,33,33,33,33,33,32,-1,-1,-1,-1,-1,-1,-1,-1,-1,-1,-1,-1,-1,-1,-1,1,-1,-1,-1,-1,-1,-1,-1,45,33,33,33,33,33,33,33,33,33,33,33,33,33,33,32,-1,-1,-1,-1,-1,-1,-1,-1,-1,-1,-1,-1,-1,-1,-1,-1,-1,-1,-1,-1,-1,-1,-1,-1,45,33,33,33,33,33,33,33,33,33,33,33,33,32,-1,2,-1,-1,-1,-1,-1,-1,-1,-1,-1,-1,-1,-1,-1,-1,-1,-1,-1,-1,-1,-1,-1,-1,-1,-1,-1,-1,-1,-1,-1,23,25,33,33,33,33,33,33,33,33,33,33,33
33,33,33,33,33,33,52,54,-1,-1,-1,-1,-1,-1,-1,-1,-1,-1,-1,-1,-1,-1,-1,-1,-1,-1,-1,-1,-1,-1,45,33,33,33,33,33,33,33,33,33,33,33,33,33,33,52,54,-1,19,-1,-1,-1,-1,-1,-1,-1,-1,-1,-1,-1,-1,-1,-1,-1,-1,-1,-1,-1,2,-1,45,33,33,33,33,33,33,33,33,33,33,33,33,32,-1,-1,-1,-1,-1,-1,-1,-1,-1,-1,-1,-1,-1,-1,-1,-1,-1,-1,-1,-1,-1,-1,-1,-1,-1,-1,-1,-1,-1,-1,-1,-1,45,33,33,33,33,33,33,33,33,33,33,33
33,33,33,33,33,33,33,52,54,-1,-1,-1,-1,-1,-1,-1,-1,-1,-1,0,-1,-1,-1,-1,-1,-1,-1,-1,-1,-1,45,33,33,33,33,33,33,33,33,33,33,33,33,33,33,33,52,54,-1,-1,-1,-1,-1,-1,-1,-1,-1,-1,-1,-1,-1,-1,-1,-1,1,-1,5,0,-1,-1,45,33,33,33,33,33,33,33,33,33,33,33,33,52,54,-1,-1,-1,2,-1,-1,-1,-1,-1,-1,-1,-1,-1,-1,-1,-1,-1,-1,-1,-1,-1,-1,-1,-1,-1,-1,-1,-1,-1,-1,-1,45,33,33,33,33,33,33,33,33,33,33,33
33,33,33,33,33,33,33,33,32,-1,-1,-1,-1,-1,1,-1,-1,-1,0,-1,-1,-1,-1,-1,-1,-1,-1,-1,-1,-1,45,33,33,33,33,33,33,33,33,33,33,33,33,33,33,33,33,32,-1,-1,-1,-1,-1,-1,-1,-1,-1,-1,-1,-1,-1,-1,-1,-1,-1,5,1,3,-1,0,23,25,33,33,33,33,33,33,33,33,33,33,33,33,52,54,-1,-1,-1,-1,-1,-1,-1,-1,-1,-1,-1,-1,-1,-1,-1,-1,-1,-1,-1,-1,-1,-1,-1,-1,-1,-1,-1,-1,-1,-1,45,33,33,33,33,33,33,33,33,33,33,33
33,33,33,33,33,33,33,33,32,-1,-1,-1,-1,-1,-1,-1,-1,-1,-1,-1,-1,-1,-1,-1,-1,-1,-1,-1,-1,-1,23,25,33,33,33,33,33,33,33,33,33,33,33,33,33,33,33,32,-1,-1,-1,-1,-1,-1,-1,-1,-1,-1,-1,-1,-1,-1,-1,-1,-1,-1,4,-1,0,-1,-1,23,25,33,33,33,33,33,33,33,33,33,33,33,33,52,54,-1,-1,-1,-1,-1,-1,-1,-1,-1,-1,-1,-1,-1,-1,-1,-1,-1,-1,-1,-1,-1,-1,-1,-1,-1,-1,-1,-1,-1,23,25,33,33,33,33,33,33,33,33,33,33
33,33,33,33,33,33,33,33,32,-1,-1,-1,-1,-1,-1,-1,-1,-1,-1,-1,-1,-1,-1,-1,-1,-1,-1,-1,-1,-1,-1,23,25,33,33,33,33,33,33,33,33,33,33,33,33,33,33,32,-1,-1,-1,-1,-1,-1,-1,-1,-1,-1,-1,-1,-1,-1,-1,-1,-1,-1,-1,-1,-1,-1,-1,-1,23,25,33,33,33,33,33,33,33,33,33,33,33,33,52,54,-1,-1,-1,-1,-1,-1,-1,-1,-1,-1,-1,3,-1,-1,-1,-1,-1,-1,-1,-1,3,-1,-1,-1,-1,-1,-1,-1,-1,45,33,33,33,33,33,33,33,33,33,33
33,33,33,33,33,33,33,33,32,-1,-1,-1,-1,-1,-1,-1,-1,-1,-1,-1,-1,-1,-1,-1,-1,-1,-1,-1,-1,-1,-1,-1,23,25,33,33,33,33,33,33,33,33,33,33,33,33,33,32,-1,-1,-1,-1,-1,-1,-1,-1,-1,-1,-1,-1,0,-1,-1,0,-1,-1,-1,-1,-1,-1,-1,-1,-1,23,24,25,33,33,33,33,33,33,33,33,33,33,33,32,-1,-1,-1,-1,-1,-1,-1,-1,-1,-1,-1,-1,-1,-1,-1,-1,-1,-1,-1,-1,-1,-1,-1,-1,-1,-1,-1,-1,-1,23,25,33,33,33,33,33,33,33,33,33
33,33,33,33,33,33,33,33,32,-1,-1,-1,-1,-1,-1,-1,-1,-1,-1,2,-1,-1,-1,-1,-1,-1,-1,-1,-1,-1,-1,-1,-1,45,33,33,33,33,33,33,33,33,33,33,33,33,33,32,-1,-1,-1,-1,-1,-1,-1,-1,-1,-1,-1,-1,-1,-1,-1,-1,-1,-1,-1,-1,-1,-1,-1,-1,-1,-1,-1,23,24,25,33,33,33,33,33,33,33,33,33,52,54,-1,-1,-1,-1,-1,-1,-1,-1,-1,-1,-1,-1,-1,-1,-1,-1,-1,-1,-1,-1,-1,-1,-1,-1,-1,-1,-1,-1,-1,45,33,33,33,33,33,33,33,33,33
33,33,33,33,33,33,33,33,32,-1,-1,-1,-1,-1,-1,-1,-1,-1,-1,-1,-1,-1,-1,-1,-1,-1,-1,-1,-1,-1,-1,-1,-1,23,25,33,33,33,33,33,33,33,33,33,33,33,33,32,-1,-1,-1,-1,-1,-1,-1,-1,-1,1,-1,-1,-1,-1,-1,-1,-1,-1,-1,-1,-1,-1,-1,-1,-1,0,-1,-1,-1,23,24,25,33,33,33,33,33,33,33,33,32,-1,-1,-1,-1,-1,-1,-1,-1,-1,-1,-1,-1,-1,-1,-1,-1,-1,-1,-1,-1,-1,-1,-1,-1,-1,-1,-1,-1,-1,45,33,33,33,33,33,33,33,33,33
33,33,33,33,33,33,33,22,42,-1,-1,-1,-1,-1,-1,-1,-1,-1,-1,-1,-1,-1,-1,-1,-1,-1,-1,-1,-1,-1,-1,-1,-1,-1,23,25,33,33,33,33,33,33,33,33,33,33,33,32,-1,-1,-1,-1,-1,-1,-1,-1,-1,-1,-1,-1,-1,-1,-1,-1,-1,-1,-1,-1,-1,-1,-1,-1,-1,-1,-1,19,-1,-1,-1,23,25,33,33,33,33,33,33,33,52,54,-1,-1,-1,-1,-1,-1,-1,-1,-1,-1,-1,-1,-1,-1,-1,-1,-1,-1,-1,-1,-1,-1,-1,-1,-1,-1,-1,-1,45,33,33,33,33,33,33,33,33,33
33,33,33,33,33,33,33,32,-1,-1,-1,-1,-1,-1,-1,-1,-1,-1,-1,-1,-1,-1,-1,-1,-1,-1,-1,-1,-1,-1,-1,-1,-1,-1,-1,23,25,33,33,33,33,33,33,33,33,33,33,32,-1,-1,-1,-1,-1,-1,-1,-1,-1,-1,-1,-1,-1,-1,-1,-1,-1,-1,-1,-1,-1,-1,-1,-1,-1,-1,-1,-1,-1,-1,-1,-1,45,33,33,33,33,33,33,33,33,32,-1,-1,-1,-1,-1,-1,-1,-1,-1,-1,-1,-1,-1,-1,-1,-1,-1,-1,-1,-1,-1,-1,-1,-1,-1,-1,-1,-1,45,33,33,33,33,33,33,33,33,33
33,33,33,33,33,33,33,32,-1,-1,-1,-1,-1,-1,-1,-1,-1,-1,-1,-1,-1,-1,-1,-1,-1,-1,-1,-1,-1,-1,-1,-1,-1,-1,-1,-1,45,33,33,33,33,33,33,33,33,33,33,32,-1,15,16,-1,-1,-1,-1,0,-1,-1,-1,-1,-1,-1,-1,-1,-1,-1,-1,-1,-1,-1,-1,-1,-1,-1,-1,-1,-1,-1,-1,-1,23,25,33,33,33,33,33,33,33,32,19,-1,-1,-1,-1,-1,-1,-1,-1,-1,-1,-1,-1,-1,-1,-1,-1,-1,-1,-1,-1,-1,-1,-1,-1,-1,-1,-1,45,33,33,33,33,33,33,33,33,33
33,33,33,33,33,33,33,32,-1,15,16,-1,-1,-1,-1,-1,-1,-1,-1,-1,-1,-1,-1,-1,-1,-1,-1,-1,-1,-1,-1,-1,-1,-1,-1,-1,45,33,33,33,33,33,33,33,33,33,33,32,-1,-1,-1,-1,-1,-1,-1,-1,-1,-1,-1,-1,-1,-1,-1,-1,-1,-1,-1,-1,-1,-1,-1,-1,-1,-1,-1,-1,-1,-1,-1,-1,-1,45,33,33,33,33,33,33,33,32,-1,-1,-1,-1,-1,-1,-1,-1,-1,-1,-1,3,-1,-1,-1,-1,-1,-1,-1,-1,-1,-1,-1,-1,-1,-1,-1,-1,45,33,33,33,33,33,33,33,33,33
33,33,33,33,33,33,33,32,-1,-1,-1,-1,-1,-1,-1,-1,-1,-1,-1,-1,-1,-1,-1,-1,-1,-1,-1,-1,-1,-1,-1,-1,-1,-1,-1,-1,45,33,33,33,33,33,33,33,33,33,22,42,-1,-1,-1,-1,-1,-1,-1,-1,-1,-1,-1,-1,-1,-1,-1,-1,-1,-1,-1,-1,-1,-1,-1,-1,-1,-1,-1,-1,-1,-1,-1,-1,-1,45,33,33,33,33,33,33,33,32,-1,-1,-1,-1,-1,-1,-1,-1,-1,-1,-1,-1,-1,-1,-1,-1,-1,-1,-1,-1,-1,-1,-1,-1,-1,-1,-1,-1,45,33,33,33,33,33,33,33,33,33
33,33,33,33,33,33,33,32,19,-1,-1,-1,-1,-1,-1,-1,-1,-1,-1,-1,-1,-1,-1,-1,-1,-1,-1,-1,-1,-1,-1,-1,-1,-1,-1,-1,23,25,33,33,33,33,33,33,33,22,42,-1,-1,-1,-1,-1,-1,-1,-1,-1,-1,-1,-1,-1,-1,-1,0,-1,-1,-1,-1,-1,-1,-1,-1,-1,-1,-1,-1,-1,-1,-1,-1,-1,-1,45,33,33,33,33,33,33,33,32,-1,-1,-1,-1,-1,-1,-1,-1,-1,-1,-1,-1,-1,-1,-1,-1,-1,-1,3,-1,-1,-1,-1,-1,-1,-1,-1,-1,45,33,33,33,33,33,33,33,33,33
33,33,33,33,33,33,33,32,-1,-1,-1,-1,-1,-1,-1,-1,-1,-1,-1,-1,-1,-1,-1,-1,-1,-1,-1,-1,-1,-1,-1,-1,-1,-1,-1,-1,-1,23,24,25,33,33,33,33,33,32,-1,-1,-1,-1,-1,-1,-1,-1,0,-1,-1,-1,-1,-1,-1,-1,-1,-1,-1,-1,-1,-1,-1,-1,-1,-1,-1,-1,-1,-1,-1,-1,-1,-1,-1,45,33,33,33,33,33,33,33,32,-1,-1,-1,-1,-1,-1,-1,-1,-1,-1,-1,-1,-1,-1,-1,-1,-1,-1,-1,-1,-1,-1,-1,-1,-1,-1,-1,-1,45,33,33,33,33,33,33,33,33,33
33,33,33,33,33,33,33,52,54,-1,19,-1,-1,-1,-1,-1,-1,-1,-1,-1,-1,-1,-1,-1,-1,-1,-1,-1,-1,-1,-1,-1,-1,-1,-1,-1,-1,-1,-1,45,33,33,33,33,22,42,-1,-1,-1,-1,-1,-1,-1,-1,-1,-1,-1,-1,-1,0,-1,-1,-1,-1,-1,-1,0,-1,-1,-1,-1,-1,-1,-1,-1,-1,-1,-1,-1,15,16,45,33,33,33,33,33,33,33,32,-1,-1,-1,-1,-1,-1,-1,-1,-1,-1,-1,-1,-1,-1,-1,-1,-1,-1,-1,-1,-1,-1,-1,-1,-1,-1,-1,-1,45,33,33,33,33,33,33,33,33,33
33,33,33,33,33,33,33,33,32,-1,-1,-1,-1,-1,-1,-1,-1,-1,-1,-1,-1,-1,-1,-1,-1,-1,-1,-1,-1,-1,-1,-1,-1,-1,-1,-1,-1,-1,-1,23,25,33,33,33,32,-1,-1,-1,-1,-1,-1,-1,-1,-1,-1,-1,-1,-1,-1,-1,-1,-1,-1,-1,-1,-1,-1,-1,-1,-1,-1,-1,-1,-1,-1,-1,-1,-1,-1,-1,-1,45,33,33,33,33,33,33,33,32,-1,-1,-1,-1,-1,-1,-1,-1,-1,-1,-1,-1,-1,-1,-1,-1,-1,-1,-1,-1,-1,-1,-1,-1,-1,-1,-1,-1,45,33,33,33,33,33,33,33,33,33
33,33,33,33,33,33,33,33,32,-1,-1,-1,-1,-1,-1,-1,-1,-1,-1,-1,-1,-1,-1,-1,-1,-1,-1,-1,-1,-1,-1,-1,-1,-1,-1,-1,-1,-1,-1,-1,23,25,33,22,42,-1,-1,-1,-1,2,-1,-1,-1,-1,-1,-1,-1,-1,-1,-1,-1,-1,-1,0,-1,-1,-1,-1,-1,-1,-1,-1,-1,-1,-1,-1,-1,-1,-1,-1,-1,45,33,33,33,33,33,33,33,32,-1,-1,-1,-1,-1,-1,-1,-1,-1,-1,-1,-1,-1,-1,-1,-1,-1,-1,-1,-1,-1,-1,-1,-1,-1,-1,35,53,55,33,33,33,33,33,33,33,33,33
33,33,33,33,33,33,33,33,32,-1,-1,-1,-1,-1,-1,-1,-1,-1,-1,-1,-1,-1,-1,-1,-1,-1,-1,-1,-1,-1,-1,-1,-1,-1,-1,-1,-1,-1,-1,-1,-1,23,24,42,-1,1,-1,5,0,-1,-1,-1,-1,-1,-1,-1,-1,-1,-1,-1,-1,-1,-1,-1,-1,-1,-1,-1,-1,-1,-1,-1,-1,-1,0,0,-1,-1,-1,-1,-1,45,33,33,33,33,33,33,33,32,3,-1,-1,-1,-1,-1,-1,-1,-1,-1,-1,-1,-1,-1,-1,-1,-1,-1,-1,-1,-1,-1,-1,-1,35,53,55,33,33,33,33,33,33,33,33,33,33,33
33,33,33,33,33,33,33,33,32,2,-1,-1,-1,-1,-1,-1,-1,-1,2,-1,-1,-1,-1,-1,-1,-1,-1,-1,-1,-1,-1,-1,-1,-1,-1,-1,-1,-1,-1,-1,-1,-1,-1,-1,-1,-1,5,1,3,-1,-1,-1,-1,-1,-1,-1,-1,-1,-1,-1,-1,-1,-1,-1,-1,-1,-1,-1,-1,-1,-1,-1,-1,-1,-1,-1,-1,-1,-1,-1,-1,45,33,33,33,33,33,33,33,52,54,-1,-1,-1,-1,-1,-1,-1,-1,-1,-1,-1,-1,-1,-1,-1,-1,-1,-1,-1,-1,-1,-1,35,55,33,33,33,33,33,33,33,33,33,33,33,33,33
33,33,33,33,33,33,33,33,52,54,-1,-1,-1,-1,-1,-1,-1,-1,-1,-1,-1,-1,-1,-1,-1,-1,-1,-1,-1,-1,-1,-1,-1,-1,-1,-1,-1,-1,-1,-1,-1,-1,-1,-1,-1,-1,-1,4,-1,0,-1,-1,-1,-1,-1,-1,-1,-1,-1,0,-1,-1,-1,-1,-1,-1,-1,-1,-1,-1,-1,-1,-1,-1,-1,-1,-1,-1,-1,-1,-1,45,33,33,33,33,33,33,33,33,32,-1,-1,-1,-1,-1,-1,-1,-1,-1,-1,-1,-1,-1,-1,-1,-1,-1,-1,-1,-1,-1,35,55,33,33,33,33,33,33,33,33,33,33,33,33,33,33
33,33,33,33,33,33,33,33,33,52,54,-1,-1,-1,-1,-1,-1,-1,-1,-1,-1,-1,-1,-1,-1,-1,-1,-1,-1,-1,-1,-1,-1,-1,-1,-1,-1,-1,-1,-1,-1,-1,-1,-1,-1,-1,0,-1,-1,-1,-1,-1,0,-1,-1,-1,-1,-1,-1,-1,-1,-1,-1,-1,-1,-1,-1,-1,-1,-1,-1,-1,-1,-1,-1,-1,-1,-1,-1,-1,35,55,33,33,33,33,33,33,33,33,32,-1,-1,-1,-1,-1,-1,-1,-1,-1,-1,-1,-1,-1,-1,-1,-1,-1,-1,-1,-1,-1,45,33,33,33,33,33,33,33,33,33,33,33,33,33,33,33
33,33,33,33,33,33,33,33,33,33,52,54,-1,-1,-1,-1,-1,-1,-1,-1,-1,-1,-1,-1,-1,0,-1,-1,-1,-1,-1,-1,-1,-1,-1,-1,-1,0,-1,-1,-1,-1,-1,-1,-1,-1,-1,-1,-1,-1,0,-1,-1,-1,-1,-1,-1,-1,-1,-1,-1,-1,-1,-1,-1,-1,-1,-1,-1,-1,-1,-1,-1,-1,-1,-1,-1,-1,-1,35,55,33,33,33,33,33,33,33,33,33,32,-1,0,-1,-1,2,-1,-1,-1,-1,-1,-1,-1,-1,-1,-1,-1,-1,-1,-1,-1,-1,45,33,33,33,33,33,33,33,33,33,33,33,33,33,33,33
33,33,33,33,33,33,33,33,33,33,33,52,54,-1,-1,-1,-1,-1,-1,-1,-1,-1,-1,-1,-1,-1,-1,-1,-1,-1,-1,-1,-1,-1,-1,-1,-1,-1,-1,-1,-1,-1,-1,-1,-1,-1,-1,-1,-1,-1,-1,-1,-1,-1,35,53,53,54,-1,-1,-1,-1,-1,-1,-1,-1,-1,-1,-1,0,-1,-1,-1,-1,-1,-1,-1,-1,35,55,33,33,33,33,33,33,33,33,33,33,32,1,-1,5,0,-1,-1,-1,-1,-1,-1,-1,-1,-1,-1,-1,-1,-1,-1,-1,-1,0,45,33,33,33,33,33,33,33,33,33,33,33,33,33,33,33
33,33,33,33,33,33,33,33,33,33,33,33,52,53,54,-1,-1,-1,-1,-1,-1,35,53,54,-1,-1,-1,-1,-1,-1,-1,-1,-1,-1,-1,-1,-1,-1,-1,-1,-1,-1,-1,35,54,-1,-1,-1,-1,-1,0,-1,-1,-1,45,33,33,52,54,-1,-1,-1,-1,-1,-1,0,-1,-1,-1,-1,-1,-1,-1,-1,-1,-1,-1,35,55,33,33,33,33,33,33,33,33,33,33,33,32,-1,5,1,3,-1,-1,-1,-1,-1,-1,-1,-1,-1,-1,-1,-1,-1,-1,-1,2,-1,45,33,33,33,33,33,33,33,33,33,33,33,33,33,33,33
33,33,33,33,33,33,33,33,33,33,33,33,33,33,52,53,53,53,53,53,53,55,33,52,53,53,54,-1,-1,-1,-1,-1,-1,-1,-1,-1,-1,-1,-1,-1,-1,35,53,55,52,54,-1,-1,-1,-1,-1,-1,-1,35,55,33,33,33,52,54,-1,-1,-1,-1,-1,-1,-1,-1,-1,-1,-1,-1,-1,-1,-1,-1,35,55,33,33,33,33,33,33,33,33,33,33,33,33,32,-1,-1,4,-1,0,-1,-1,-1,-1,-1,-1,-1,-1,-1,-1,1,-1,5,0,-1,-1,45,33,33,33,33,33,33,33,33,33,33,33,33,33,33,33
33,33,33,33,33,33,33,33,33,33,33,33,33,33,33,33,33,33,33,33,33,33,33,33,33,33,52,54,-1,-1,-1,-1,-1,-1,-1,-1,-1,-1,35,53,53,55,33,33,33,52,54,-1,-1,-1,-1,35,53,55,33,33,33,33,33,52,53,53,54,-1,-1,-1,-1,-1,-1,-1,-1,-1,-1,-1,35,53,55,33,33,33,33,33,33,33,33,33,33,33,33,33,32,-1,-1,-1,-1,-1,-1,-1,-1,-1,-1,-1,-1,-1,-1,-1,-1,5,1,3,0,-1,23,25,33,33,33,33,33,33,33,33,33,33,33,33,33,33
33,33,33,33,33,33,33,33,33,33,33,33,33,33,33,33,33,33,33,33,33,33,33,33,33,33,33,52,53,53,53,53,53,53,53,53,53,53,55,33,33,33,33,33,33,33,52,53,53,53,53,55,33,33,33,33,33,33,33,33,33,33,52,53,53,54,-1,-1,-1,-1,-1,-1,-1,35,55,33,33,33,33,33,33,33,33,33,33,33,33,33,33,33,32,-1,-1,-1,-1,-1,-1,-1,-1,-1,-1,-1,-1,-1,-1,-1,-1,-1,4,-1,0,-1,-1,23,25,33,33,33,33,33,33,33,33,33,33,33,33,33
33,33,33,33,33,33,33,33,33,33,33,33,33,33,33,33,33,33,33,33,33,33,33,33,33,33,33,33,33,33,33,33,33,33,33,33,33,33,33,33,33,33,33,33,33,33,33,33,33,33,33,33,33,33,33,33,33,33,33,33,33,33,33,33,33,52,53,53,53,53,53,53,53,55,33,33,33,33,33,33,33,33,33,33,33,33,33,33,33,22,42,-1,-1,-1,-1,-1,-1,-1,-1,-1,-1,-1,-1,-1,-1,-1,-1,-1,-1,-1,-1,-1,9,-1,45,33,33,33,33,33,33,33,33,33,33,33,33,33
33,33,33,33,33,33,33,33,33,33,33,33,33,33,33,33,33,33,33,33,33,33,33,33,33,33,33,33,33,33,33,33,33,33,33,33,33,33,33,33,33,33,33,33,33,33,22,24,24,24,24,24,24,25,33,33,33,33,33,33,33,33,33,33,33,33,33,33,33,33,33,33,33,33,33,33,33,33,33,33,33,33,33,33,33,33,33,33,22,42,-1,-1,-1,-1,-1,-1,-1,-1,-1,-1,-1,-1,-1,-1,-1,-1,-1,-1,-1,-1,-1,9,-1,-1,23,25,33,33,33,33,33,33,33,33,33,33,33,33
33,33,33,33,33,33,33,33,33,33,33,33,33,33,33,33,33,33,33,33,33,33,33,33,33,33,33,33,33,33,33,33,33,33,33,33,33,33,33,33,33,33,33,33,22,24,42,-1,-1,-1,-1,-1,0,23,24,24,25,33,33,33,33,33,33,33,33,33,33,33,33,33,33,33,33,33,33,33,33,33,33,33,33,33,33,33,33,33,33,33,32,-1,-1,-1,-1,-1,-1,-1,-1,-1,-1,-1,-1,-1,-1,-1,-1,-1,-1,-1,-1,-1,-1,-1,-1,-1,-1,45,33,33,33,33,33,33,33,33,33,33,33,33
33,33,33,33,33,33,33,33,33,33,33,33,33,33,33,33,33,33,33,22,24,24,24,24,24,24,24,24,24,24,24,24,24,24,24,25,33,33,33,33,33,33,33,22,42,-1,-1,-1,-1,-1,-1,-1,-1,-1,2,-1,23,24,25,33,33,33,33,33,33,33,33,33,33,33,33,33,33,33,33,33,33,33,33,33,33,33,33,33,33,33,22,24,42,-1,-1,-1,-1,-1,-1,-1,-1,-1,-1,-1,-1,-1,-1,-1,-1,-1,-1,-1,-1,-1,-1,-1,-1,-1,-1,23,25,33,33,33,33,33,33,33,33,33,33,33
33,33,33,33,33,33,33,33,33,33,33,33,33,33,33,33,33,33,22,42,-1,-1,-1,0,-1,-1,-1,-1,-1,-1,-1,-1,-1,-1,-1,23,24,24,24,24,24,24,24,42,-1,-1,0,-1,-1,2,1,-1,5,0,-1,-1,-1,-1,23,25,33,33,33,33,33,33,33,33,33,33,33,33,33,33,33,33,33,33,33,33,33,33,33,33,33,22,42,-1,-1,-1,-1,-1,-1,-1,-1,-1,-1,-1,-1,-1,-1,-1,-1,-1,-1,-1,-1,-1,-1,-1,-1,-1,-1,-1,-1,-1,45,33,33,33,33,33,33,33,33,33,33,33
33,33,33,33,33,33,33,33,33,33,33,33,33,33,33,33,33,22,42,-1,2,-1,-1,-1,-1,-1,2,-1,-1,-1,-1,-1,-1,-1,-1,-1,-1,-1,-1,-1,-1,-1,-1,-1,-1,1,-1,5,0,-1,-1,5,1,3,-1,-1,-1,-1,-1,23,24,25,33,33,33,33,33,33,33,33,33,33,33,33,33,33,33,33,33,33,33,33,33,33,22,42,-1,-1,-1,-1,-1,-1,-1,-1,-1,-1,-1,-1,-1,-1,-1,-1,-1,-1,-1,-1,-1,-1,-1,-1,-1,-1,-1,-1,-1,-1,45,33,33,33,33,33,33,33,33,33,33,33
33,33,33,33,33,33,33,33,33,33,33,33,33,33,33,33,22,42,-1,-1,-1,-1,1,-1,5,0,-1,-1,-1,-1,-1,-1,-1,-1,-1,-1,-1,-1,-1,19,-1,-1,-1,-1,-1,-1,5,1,3,-1,-1,-1,4,-1,0,-1,-1,-1,-1,-1,-1,23,24,25,33,33,33,33,33,33,33,33,33,33,33,33,33,33,33,33,33,33,33,22,42,-1,-1,-1,-1,-1,-1,-1,-1,-1,-1,-1,-1,-1,-1,-1,-1,-1,-1,-1,-1,-1,-1,-1,-1,-1,-1,-1,-1,-1,-1,-1,45,33,33,33,33,33,33,33,33,33,33,33
33,33,33,33,33,33,33,33,33,33,33,33,33,33,33,22,42,-1,-1,-1,-1,-1,-1,5,1,3,-1,2,-1,-1,-1,-1,-1,-1,-1,-1,-1,-1,-1,-1,-1,-1,-1,-1,-1,-1,-1,4,-1,0,-1,-1,-1,-1,-1,-1,-1,-1,-1,19,-1,-1,-1,23,24,24,24,24,24,25,33,33,33,33,33,33,33,33,33,33,33,33,22,42,-1,-1,-1,-1,-1,-1,-1,-1,-1,-1,-1,-1,-1,-1,-1,-1,-1,-1,-1,-1,-1,-1,-1,-1,-1,-1,-1,-1,-1,-1,-1,-1,45,33,33,33,33,33,33,33,33,33,33,33
33,33,33,33,33,33,33,33,33,33,33,33,33,33,33,32,-1,-1,-1,-1,-1,-1,-1,-1,4,-1,0,-1,-1,-1,-1,-1,-1,-1,-1,-1,-1,-1,-1,-1,-1,-1,-1,-1,-1,-1,-1,-1,-1,-1,-1,-1,-1,-1,-1,-1,-1,-1,-1,-1,-1,-1,-1,-1,-1,-1,-1,-1,-1,23,24,24,24,24,24,24,24,24,24,24,24,24,42,-1,-1,-1,-1,-1,-1,-1,-1,-1,-1,-1,-1,-1,-1,0,-1,-1,-1,-1,-1,-1,-1,-1,-1,-1,-1,-1,-1,-1,-1,-1,-1,-1,45,33,33,33,33,33,33,33,33,33,33,33
33,33,33,33,33,33,33,33,33,33,33,33,33,33,22,42,-1,-1,-1,-1,-1,-1,-1,-1,-1,-1,-1,-1,-1,-1,-1,-1,-1,-1,-1,-1,-1,-1,-1,-1,-1,-1,-1,-1,-1,-1,-1,-1,-1,-1,-1,-1,-1,-1,-1,-1,-1,15,16,-1,-1,-1,-1,-1,-1,-1,-1,-1,-1,-1,-1,-1,-1,-1,-1,-1,-1,-1,-1,-1,-1,-1,-1,-1,-1,-1,-1,-1,-1,-1,-1,-1,-1,-1,-1,-1,-1,-1,-1,-1,-1,-1,-1,-1,-1,-1,-1,-1,-1,-1,-1,-1,-1,-1,-1,-1,23,25,33,33,33,33,33,33,33,33,33,33
33,33,33,33,33,33,33,33,33,33,33,33,33,33,32,-1,-1,-1,-1,-1,-1,-1,-1,-1,-1,-1,-1,-1,-1,-1,-1,-1,-1,-1,-1,-1,-1,-1,2,-1,-1,-1,-1,-1,-1,-1,-1,-1,-1,-1,-1,-1,-1,-1,-1,-1,-1,-1,-1,-1,-1,-1,-1,-1,-1,-1,-1,-1,-1,-1,-1,-1,-1,-1,-1,-1,-1,-1,-1,-1,-1,-1,-1,-1,-1,-1,-1,-1,-1,-1,-1,-1,-1,-1,-1,-1,-1,-1,-1,-1,-1,-1,-1,-1,-1,-1,-1,-1,-1,-1,-1,-1,-1,-1,-1,-1,-1,45,33,33,33,33,33,33,33,33,33,33
33,33,33,33,33,33,33,33,33,33,33,33,33,22,42,-1,-1,-1,-1,-1,-1,-1,-1,-1,-1,-1,-1,-1,-1,-1,-1,-1,-1,-1,-1,-1,-1,-1,-1,-1,-1,-1,-1,-1,-1,-1,-1,-1,-1,-1,-1,-1,-1,-1,-1,-1,-1,-1,-1,-1,-1,-1,-1,-1,-1,-1,-1,-1,-1,-1,-1,-1,-1,-1,-1,-1,-1,-1,-1,-1,-1,-1,-1,-1,-1,-1,-1,-1,-1,0,-1,2,-1,-1,-1,-1,-1,-1,-1,-1,-1,-1,-1,-1,-1,-1,-1,-1,-1,-1,-1,-1,-1,1,-1,-1,-1,45,33,33,33,33,33,33,33,33,33,33
33,33,33,33,33,33,33,33,33,33,33,33,22,42,-1,-1,-1,-1,-1,-1,-1,-1,-1,-1,-1,-1,-1,-1,-1,-1,-1,-1,-1,-1,-1,-1,-1,-1,-1,-1,-1,-1,-1,-1,-1,-1,-1,-1,-1,-1,-1,-1,-1,-1,-1,-1,-1,-1,-1,-1,-1,-1,-1,-1,-1,-1,-1,-1,-1,-1,-1,-1,-1,-1,-1,-1,-1,-1,-1,-1,-1,-1,-1,-1,-1,-1,-1,1,-1,5,0,-1,-1,-1,-1,-1,-1,-1,-1,-1,-1,-1,-1,-1,-1,-1,-1,-1,-1,-1,-1,-1,-1,-1,-1,-1,-1,45,33,33,33,33,33,33,33,33,33,33
33,33,33,33,33,33,33,33,33,33,33,33,32,-1,-1,-1,-1,3,-1,-1,-1,-1,-1,-1,-1,-1,-1,-1,-1,-1,-1,-1,-1,-1,-1,-1,-1,-1,-1,-1,-1,-1,-1,-1,-1,-1,-1,-1,-1,-1,-1,-1,-1,-1,-1,-1,-1,-1,-1,-1,-1,-1,-1,-1,-1,-1,-1,-1,-1,-1,-1,-1,-1,-1,-1,-1,-1,-1,-1,-1,-1,-1,-1,-1,-1,-1,-1,-1,5,1,3,-1,-1,-1,-1,-1,-1,-1,-1,-1,-1,-1,-1,-1,-1,-1,-1,-1,-1,-1,-1,-1,-1,-1,-1,-1,-1,23,25,33,33,33,33,33,33,33,33,33
33,33,33,33,33,33,33,33,33,33,33,22,42,-1,-1,-1,-1,-1,-1,-1,-1,-1,-1,-1,-1,-1,-1,-1,-1,-1,-1,-1,-1,-1,-1,-1,-1,-1,-1,-1,-1,-1,-1,-1,-1,-1,-1,-1,-1,-1,-1,-1,-1,-1,-1,-1,-1,-1,-1,-1,-1,-1,-1,-1,-1,-1,-1,-1,-1,-1,-1,-1,-1,-1,-1,-1,-1,-1,-1,-1,-1,-1,-1,-1,19,-1,-1,-1,-1,4,-1,0,-1,-1,-1,-1,-1,-1,-1,-1,-1,-1,-1,-1,-1,-1,-1,-1,-1,-1,-1,-1,-1,-1,-1,-1,-1,-1,45,33,33,33,33,33,33,33,33,33
33,33,33,33,33,33,33,33,33,33,33,32,-1,-1,-1,-1,-1,-1,-1,-1,-1,-1,-1,-1,-1,-1,-1,-1,-1,-1,-1,-1,-1,-1,-1,-1,-1,-1,-1,-1,-1,-1,-1,-1,-1,-1,-1,-1,-1,-1,-1,-1,-1,-1,-1,-1,-1,-1,-1,-1,-1,-1,-1,-1,-1,-1,-1,-1,-1,-1,-1,-1,-1,-1,-1,-1,-1,-1,-1,19,-1,15,16,-1,-1,-1,-1,-1,-1,-1,-1,-1,0,-1,-1,-1,-1,-1,-1,-1,-1,-1,-1,-1,-1,-1,-1,-1,-1,-1,-1,-1,-1,-1,35,53,53,53,55,33,33,33,33,33,33,33,33,33
33,33,33,33,33,33,33,33,33,33,33,32,-1,-1,-1,-1,-1,-1,-1,-1,-1,-1,-1,-1,-1,3,-1,-1,-1,-1,-1,-1,-1,-1,-1,-1,-1,-1,-1,-1,-1,-1,-1,-1,-1,-1,-1,-1,-1,-1,-1,-1,-1,-1,-1,-1,-1,-1,-1,-1,-1,-1,-1,-1,-1,-1,-1,-1,-1,-1,-1,-1,-1,-1,35,53,53,53,53,53,53,53,53,53,53,53,53,53,53,53,53,53,53,54,-1,-1,-1,-1,-1,-1,-1,-1,-1,-1,-1,-1,-1,-1,-1,2,-1,-1,-1,35,55,33,33,33,33,33,33,33,33,33,33,33,33,33
33,33,33,33,33,33,33,33,33,33,33,32,-1,-1,-1,-1,-1,-1,-1,-1,-1,-1,-1,-1,-1,-1,-1,-1,-1,-1,-1,-1,-1,-1,-1,-1,-1,-1,-1,-1,-1,-1,-1,-1,-1,-1,-1,-1,-1,-1,-1,-1,-1,-1,-1,-1,-1,-1,-1,-1,-1,-1,-1,-1,-1,-1,-1,-1,-1,-1,-1,-1,-1,-1,45,33,33,33,33,33,33,33,33,33,33,33,33,33,33,33,33,33,33,52,53,54,-1,-1,3,-1,-1,-1,-1,-1,-1,-1,-1,-1,-1,-1,-1,-1,35,55,33,33,33,33,33,33,33,33,33,33,33,33,33,33
33,33,33,33,33,33,33,33,33,33,22,42,-1,-1,-1,-1,-1,-1,-1,-1,-1,-1,-1,-1,-1,-1,-1,-1,-1,-1,-1,-1,-1,-1,-1,-1,-1,-1,-1,-1,-1,-1,-1,-1,-1,-1,-1,-1,-1,-1,-1,-1,-1,-1,-1,-1,-1,-1,-1,-1,-1,-1,-1,-1,-1,-1,-1,-1,-1,-1,-1,-1,-1,35,55,33,33,33,33,33,33,33,33,33,33,33,33,33,33,33,33,33,33,33,33,52,54,-1,-1,-1,-1,-1,-1,-1,-1,-1,-1,-1,-1,-1,-1,-1,45,33,33,33,33,33,33,33,33,33,33,33,33,33,33,33
33,33,33,33,33,33,33,33,33,33,32,-1,-1,-1,-1,-1,-1,-1,-1,-1,-1,-1,-1,-1,-1,-1,-1,-1,-1,-1,-1,-1,-1,-1,-1,-1,-1,-1,-1,-1,-1,-1,-1,-1,-1,-1,35,53,53,53,53,53,53,53,53,53,53,53,53,54,-1,-1,-1,-1,-1,-1,-1,-1,-1,-1,-1,-1,-1,45,33,33,33,33,33,33,33,33,33,33,33,33,33,33,33,33,33,33,33,33,33,33,52,53,53,53,53,53,53,53,53,53,53,53,53,53,53,53,55,33,33,33,33,33,33,33,33,33,33,33,33,33,33,33
33,33,33,33,33,33,33,33,33,33,32,-1,-1,-1,-1,-1,-1,3,-1,-1,-1,-1,-1,-1,-1,-1,-1,-1,-1,-1,-1,-1,-1,-1,-1,-1,-1,-1,-1,-1,-1,-1,-1,-1,-1,35,55,33,33,33,33,33,33,33,33,33,33,33,33,52,54,-1,-1,-1,-1,-1,-1,-1,-1,-1,-1,-1,-1,45,33,33,33,33,33,33,33,33,33,33,33,33,33,33,33,33,33,33,33,33,33,33,33,33,33,33,33,33,33,33,33,33,33,33,33,33,33,33,33,33,33,33,33,33,33,33,33,33,33,33,33,33,33,33
33,33,33,33,33,33,33,33,33,33,32,-1,-1,-1,-1,-1,-1,-1,-1,-1,-1,-1,-1,3,-1,-1,-1,-1,-1,-1,-1,-1,-1,-1,-1,-1,-1,-1,-1,-1,-1,-1,-1,-1,35,55,33,33,33,33,33,33,33,33,33,33,33,33,33,33,52,54,-1,-1,-1,-1,-1,-1,-1,-1,-1,-1,-1,23,25,33,33,33,33,33,33,33,33,33,33,33,33,33,33,33,33,33,33,33,33,33,33,33,33,33,33,33,33,33,33,33,33,33,33,33,33,33,33,33,33,33,33,33,33,33,33,33,33,33,33,33,33,33
33,33,33,33,33,33,33,33,33,33,32,-1,2,-1,-1,-1,3,-1,-1,-1,-1,-1,-1,-1,-1,-1,-1,-1,-1,-1,-1,-1,-1,-1,-1,-1,-1,-1,-1,-1,-1,-1,-1,35,55,33,33,33,33,33,33,33,33,33,33,33,33,33,33,33,33,32,-1,-1,-1,-1,-1,-1,-1,-1,-1,-1,-1,-1,45,33,33,33,33,33,33,33,33,33,33,33,33,33,33,33,33,33,33,33,33,33,33,33,33,33,33,33,33,33,33,33,33,33,33,33,33,33,33,33,33,33,33,33,33,33,33,33,33,33,33,33,33,33
33,33,33,33,33,33,33,33,33,33,52,54,-1,-1,-1,-1,-1,-1,-1,-1,-1,-1,-1,-1,-1,-1,-1,-1,-1,-1,-1,-1,-1,-1,-1,-1,-1,-1,-1,15,16,-1,-1,45,33,33,33,33,33,33,33,33,33,33,33,33,33,33,33,33,33,32,-1,-1,-1,-1,-1,-1,-1,-1,-1,-1,-1,-1,23,24,25,33,33,33,33,33,33,33,33,33,33,33,33,33,33,33,33,33,33,33,33,33,33,33,33,33,33,33,33,33,33,33,33,33,33,33,33,33,33,33,33,33,33,33,33,33,33,33,33,33,33,33
33,33,33,33,22,24,24,25,33,33,33,52,54,-1,-1,-1,-1,-1,-1,-1,-1,-1,-1,-1,-1,-1,-1,-1,-1,-1,-1,-1,-1,-1,-1,-1,-1,-1,-1,-1,-1,-1,35,55,33,33,33,33,33,33,33,33,33,33,33,33,33,33,33,33,33,52,54,-1,-1,-1,-1,-1,-1,-1,-1,-1,-1,-1,-1,-1,23,24,24,24,24,24,24,24,24,24,24,24,24,24,24,24,24,24,25,33,33,33,33,33,33,33,33,33,33,33,33,33,33,33,33,33,33,33,33,33,33,33,33,33,33,33,33,33,33,33,33,33
33,33,33,33,32,-1,-1,23,24,25,33,33,52,54,-1,-1,-1,-1,-1,-1,-1,-1,-1,-1,-1,-1,-1,-1,-1,-1,-1,-1,-1,-1,-1,-1,-1,-1,-1,-1,-1,-1,45,33,33,33,33,33,33,33,33,33,33,33,33,33,33,33,33,33,33,33,52,54,-1,-1,-1,-1,-1,-1,-1,-1,-1,-1,-1,-1,-1,-1,-1,-1,-1,-1,-1,-1,-1,-1,-1,-1,-1,-1,-1,-1,-1,-1,23,24,25,33,33,33,33,33,33,33,33,33,33,33,33,33,33,33,33,33,33,33,33,33,33,33,33,33,33,33,33,33,33,33
33,33,33,33,32,-1,-1,-1,-1,23,33,33,33,52,54,-1,-1,-1,-1,-1,-1,-1,2,-1,-1,-1,-1,-1,-1,-1,-1,-1,-1,-1,-1,-1,-1,-1,-1,-1,-1,35,55,33,33,33,33,33,33,33,33,33,33,33,33,33,33,33,33,33,33,33,33,32,-1,-1,-1,-1,-1,-1,-1,-1,-1,-1,-1,-1,-1,-1,-1,-1,-1,-1,-1,-1,-1,-1,-1,-1,-1,-1,-1,9,-1,-1,-1,-1,23,25,33,33,33,33,33,33,33,33,33,33,33,33,33,33,33,33,33,33,33,33,33,33,33,33,33,33,33,33,33,33
33,33,33,22,42,-1,-1,-1,-1,-1,45,33,33,33,52,53,54,-1,-1,-1,-1,-1,-1,-1,-1,-1,-1,-1,-1,-1,-1,-1,-1,-1,-1,-1,-1,-1,-1,-1,35,55,33,33,33,33,33,33,33,33,33,33,33,33,33,33,33,33,33,33,33,33,33,32,-1,-1,-1,-1,-1,-1,-1,-1,-1,-1,-1,-1,-1,-1,-1,-1,-1,-1,-1,-1,-1,-1,-1,-1,-1,-1,-1,-1,19,-1,-1,-1,-1,45,33,33,33,33,33,33,33,33,33,33,22,24,24,24,24,24,24,24,25,33,33,33,33,33,33,33,33,33,33,33
33,33,22,42,-1,-1,-1,-1,-1,-1,23,25,33,33,33,33,52,54,-1,-1,-1,-1,-1,-1,-1,-1,-1,-1,-1,-1,-1,-1,-1,-1,-1,-1,-1,-1,-1,-1,45,33,33,33,33,33,33,33,33,33,33,33,33,33,33,33,33,33,33,33,33,33,33,32,-1,-1,-1,-1,-1,-1,-1,-1,-1,-1,-1,-1,-1,-1,-1,-1,-1,-1,-1,-1,-1,-1,-1,-1,-1,-1,-1,-1,-1,-1,-1,-1,-1,45,33,33,33,33,33,33,33,22,24,24,42,-1,-1,-1,-1,-1,-1,-1,23,25,33,33,33,33,33,33,33,33,33,33
33,33,32,-1,-1,-1,-1,-1,-1,-1,-1,45,33,33,33,33,33,52,53,54,-1,-1,-1,-1,-1,-1,-1,-1,-1,-1,-1,-1,-1,-1,-1,-1,-1,-1,-1,35,55,33,33,33,33,33,33,33,33,33,33,33,33,33,33,33,33,33,33,33,33,33,33,32,-1,-1,-1,-1,-1,-1,-1,-1,-1,-1,-1,-1,-1,-1,-1,-1,-1,-1,-1,-1,-1,-1,-1,-1,19,-1,-1,-1,-1,-1,-1,-1,-1,23,25,33,33,33,33,33,22,42,-1,-1,-1,-1,-1,-1,-1,-1,-1,-1,-1,45,33,33,33,33,33,33,33,33,33,33
33,33,32,-1,-1,-1,-1,-1,-1,-1,-1,45,33,33,33,33,33,33,33,52,54,-1,-1,-1,-1,-1,-1,-1,-1,-1,-1,-1,-1,-1,-1,-1,-1,-1,-1,45,33,33,33,33,33,33,33,33,33,33,33,33,33,33,33,33,33,33,33,33,33,33,33,32,-1,1,-1,-1,-1,-1,-1,-1,-1,-1,-1,-1,-1,-1,-1,-1,-1,-1,-1,-1,-1,-1,-1,-1,-1,-1,-1,-1,-1,-1,-1,-1,0,2,23,25,33,33,33,22,42,-1,-1,-1,-1,-1,-1,-1,-1,-1,-1,-1,-1,23,25,33,33,33,33,33,33,33,33,33
33,33,32,-1,-1,-1,-1,-1,-1,-1,-1,45,33,33,33,33,33,33,33,33,52,54,-1,-1,-1,-1,-1,-1,-1,-1,-1,-1,-1,-1,-1,-1,-1,-1,-1,45,33,33,33,33,33,33,33,33,33,33,33,33,33,33,33,33,33,33,33,33,33,33,33,32,-1,-1,-1,-1,-1,-1,-1,-1,-1,-1,-1,-1,-1,-1,-1,-1,-1,-1,-1,-1,-1,-1,-1,-1,-1,-1,-1,-1,-1,1,-1,5,0,-1,-1,23,24,24,24,42,-1,-1,-1,-1,1,-1,-1,-1,-1,-1,-1,-1,-1,-1,23,25,33,33,33,33,33,33,33,33
33,33,32,-1,-1,-1,-1,-1,-1,-1,-1,45,33,33,33,33,33,33,33,33,33,52,53,54,-1,-1,-1,-1,-1,-1,-1,-1,-1,-1,-1,-1,2,-1,-1,45,33,33,33,33,33,33,33,33,33,33,33,33,33,33,33,33,33,33,33,33,33,33,33,52,54,-1,-1,-1,9,-1,-1,-1,-1,-1,-1,-1,-1,-1,-1,-1,-1,-1,-1,-1,-1,-1,-1,-1,-1,-1,-1,-1,-1,-1,5,1,3,-1,-1,-1,-1,-1,-1,-1,-1,-1,-1,-1,-1,-1,-1,-1,-1,-1,-1,-1,-1,-1,-1,45,33,33,33,33,33,33,33,33
33,33,32,-1,-1,-1,-1,-1,-1,2,-1,45,33,33,33,33,33,33,33,33,33,33,33,52,53,54,-1,-1,-1,-1,-1,-1,-1,-1,-1,-1,-1,-1,-1,45,33,33,33,33,33,33,33,33,33,33,33,33,33,33,33,33,33,33,33,33,33,33,33,33,52,54,-1,-1,-1,-1,-1,-1,-1,-1,-1,-1,-1,-1,-1,-1,-1,-1,-1,-1,-1,-1,-1,-1,-1,-1,-1,-1,-1,-1,-1,4,-1,0,-1,-1,-1,-1,-1,-1,-1,-1,-1,-1,-1,-1,-1,-1,-1,-1,-1,-1,-1,-1,-1,23,25,33,33,33,33,33,33,33
33,33,32,-1,-1,-1,-1,-1,-1,-1,-1,45,33,33,33,33,33,33,33,33,33,33,33,33,33,32,-1,-1,-1,-1,-1,-1,-1,-1,-1,-1,-1,-1,-1,23,24,24,25,33,33,33,33,33,33,33,33,33,33,33,33,33,33,33,33,33,33,33,33,33,33,52,53,53,53,53,54,-1,-1,-1,-1,-1,-1,-1,-1,-1,-1,-1,-1,-1,-1,-1,-1,-1,-1,-1,-1,-1,-1,-1,-1,-1,-1,-1,-1,-1,-1,-1,-1,-1,-1,-1,-1,-1,-1,-1,-1,-1,-1,-1,-1,3,-1,-1,-1,-1,45,33,33,33,33,33,33,33
33,33,32,-1,-1,-1,-1,-1,-1,-1,-1,45,33,33,33,33,33,33,33,33,33,33,33,33,33,32,-1,-1,-1,-1,-1,-1,-1,-1,-1,-1,-1,-1,-1,-1,-1,-1,23,24,24,24,25,33,33,33,33,33,33,33,33,33,33,33,33,33,33,33,33,33,33,33,33,33,33,33,52,54,-1,-1,-1,-1,-1,-1,-1,-1,-1,-1,-1,-1,-1,-1,-1,-1,-1,-1,-1,-1,-1,-1,-1,-1,-1,-1,-1,-1,-1,-1,-1,-1,-1,-1,-1,-1,-1,-1,-1,-1,-1,-1,-1,-1,3,-1,-1,-1,23,25,33,33,33,33,33,33
33,33,32,-1,-1,2,-1,-1,-1,-1,-1,23,25,33,33,33,33,33,33,33,33,33,33,33,33,32,-1,-1,-1,-1,-1,-1,-1,-1,-1,-1,-1,-1,-1,-1,-1,-1,-1,-1,0,-1,23,25,33,33,33,33,33,33,33,33,33,33,33,33,33,33,33,33,33,33,33,33,33,33,33,32,-1,-1,-1,-1,-1,-1,-1,-1,-1,-1,-1,-1,2,-1,-1,-1,-1,-1,-1,-1,-1,-1,-1,-1,-1,-1,-1,-1,-1,-1,-1,-1,-1,-1,-1,-1,-1,3,-1,-1,-1,-1,-1,-1,-1,-1,-1,-1,-1,45,33,33,33,33,33,33
33,33,32,-1,-1,-1,-1,-1,2,-1,-1,-1,23,24,24,24,24,25,33,33,33,33,33,33,22,42,-1,-1,-1,-1,-1,-1,-1,-1,-1,-1,-1,-1,-1,-1,-1,-1,-1,-1,-1,-1,-1,23,25,33,33,33,33,33,33,33,33,33,33,33,33,33,33,33,33,33,33,33,33,33,33,32,-1,-1,-1,-1,-1,-1,-1,-1,1,-1,5,0,-1,-1,-1,-1,-1,-1,-1,-1,-1,-1,-1,-1,-1,-1,-1,-1,-1,-1,-1,-1,-1,-1,-1,-1,-1,-1,-1,-1,-1,-1,-1,-1,-1,-1,-1,-1,-1,45,33,33,33,33,33,33
33,33,52,54,-1,-1,-1,-1,-1,-1,-1,-1,-1,-1,-1,-1,-1,23,24,24,24,24,24,24,42,-1,-1,-1,-1,-1,-1,-1,-1,-1,-1,-1,-1,-1,-1,-1,-1,-1,-1,-1,-1,-1,2,-1,23,25,33,33,33,33,33,33,33,33,33,33,33,33,33,33,33,33,33,33,33,33,33,32,-1,-1,-1,-1,-1,-1,-1,-1,-1,5,1,3,-1,-1,-1,-1,-1,-1,-1,-1,-1,-1,-1,-1,-1,-1,-1,-1,-1,-1,-1,-1,-1,-1,-1,-1,-1,-1,-1,-1,3,-1,-1,-1,-1,-1,-1,-1,35,55,33,33,33,33,33,33
33,33,33,32,-1,-1,-1,-1,-1,-1,-1,-1,-1,-1,-1,-1,-1,-1,-1,-1,-1,-1,-1,-1,-1,-1,-1,-1,-1,-1,-1,-1,-1,-1,-1,-1,-1,-1,-1,-1,-1,-1,1,-1,5,0,-1,-1,-1,45,33,33,33,33,33,33,33,33,33,33,33,33,33,33,33,33,33,33,33,33,33,32,-1,-1,-1,-1,-1,-1,-1,-1,-1,-1,4,0,0,-1,-1,-1,35,53,53,54,-1,-1,-1,-1,-1,-1,-1,-1,-1,-1,-1,-1,-1,-1,-1,-1,-1,-1,-1,-1,-1,-1,-1,-1,-1,-1,-1,-1,45,33,33,33,33,33,33,33
33,33,33,52,54,-1,-1,-1,-1,-1,-1,-1,-1,-1,-1,-1,-1,-1,-1,-1,-1,-1,-1,-1,-1,-1,-1,-1,-1,-1,-1,-1,-1,-1,-1,-1,-1,-1,-1,-1,-1,-1,-1,5,1,3,-1,0,-1,45,33,33,33,33,33,33,33,33,33,33,33,33,33,33,33,33,33,33,22,24,24,42,-1,-1,-1,-1,-1,-1,-1,-1,-1,-1,-1,-1,-1,35,53,53,55,33,33,52,53,54,-1,-1,-1,-1,-1,-1,-1,-1,-1,-1,-1,-1,-1,-1,-1,-1,-1,-1,-1,-1,-1,-1,-1,1,-1,35,55,33,33,33,33,33,33,33
33,33,33,33,52,54,-1,-1,-1,-1,-1,-1,-1,-1,-1,-1,-1,-1,-1,-1,-1,-1,-1,-1,-1,-1,-1,-1,-1,-1,-1,-1,-1,-1,-1,-1,-1,-1,-1,-1,-1,-1,-1,-1,4,-1,0,-1,-1,45,33,33,33,33,33,33,33,33,33,33,33,33,33,33,33,33,33,33,32,-1,-1,-1,-1,-1,-1,-1,-1,-1,-1,-1,-1,35,53,53,53,55,33,33,33,33,33,33,33,52,54,-1,-1,-1,-1,-1,-1,-1,-1,-1,-1,-1,-1,-1,-1,-1,-1,-1,-1,-1,-1,-1,-1,-1,35,55,33,33,33,33,33,33,33,33
33,33,33,33,33,32,-1,-1,-1,-1,-1,-1,-1,-1,-1,-1,-1,-1,-1,-1,-1,-1,-1,-1,-1,-1,-1,-1,-1,-1,-1,-1,-1,-1,-1,-1,-1,-1,-1,-1,-1,-1,-1,-1,-1,-1,-1,-1,-1,45,33,33,33,33,33,33,33,33,33,33,33,33,33,33,33,33,33,33,32,-1,-1,-1,-1,-1,-1,-1,-1,-1,-1,-1,-1,45,33,33,33,33,33,33,33,33,33,33,33,33,32,-1,-1,-1,-1,-1,-1,-1,-1,-1,-1,-1,-1,-1,-1,-1,-1,-1,-1,-1,-1,-1,-1,-1,45,33,33,33,33,33,33,33,33,33
33,33,33,33,33,32,-1,-1,-1,-1,-1,-1,-1,-1,-1,-1,-1,-1,-1,-1,-1,-1,-1,-1,-1,-1,-1,-1,-1,-1,-1,-1,-1,-1,-1,-1,-1,-1,-1,-1,-1,-1,-1,-1,-1,-1,-1,-1,19,45,33,33,33,33,33,33,33,33,33,33,33,33,33,33,33,33,22,24,42,-1,-1,-1,-1,-1,-1,-1,-1,-1,-1,-1,35,55,33,33,33,33,33,33,33,33,33,33,33,33,32,-1,-1,-1,-1,-1,-1,-1,-1,-1,-1,-1,-1,-1,-1,-1,-1,-1,35,53,53,53,53,53,55,33,33,33,33,33,33,33,33,33
33,33,33,33,33,32,-1,-1,-1,-1,-1,-1,-1,-1,-1,-1,-1,-1,-1,-1,-1,-1,-1,-1,-1,-1,-1,-1,35,54,-1,-1,-1,-1,-1,-1,-1,-1,-1,-1,-1,-1,-1,-1,0,-1,2,-1,-1,45,33,33,33,33,33,33,33,33,33,33,33,33,33,33,33,22,42,-1,-1,-1,-1,-1,-1,-1,-1,-1,-1,-1,-1,-1,45,33,33,33,33,33,33,33,33,33,33,33,33,33,52,54,-1,0,-1,-1,2,-1,-1,-1,-1,-1,-1,-1,-1,-1,-1,35,55,33,33,33,33,33,33,33,33,33,33,33,33,33,33,33
33,33,33,33,33,32,-1,-1,-1,-1,-1,-1,-1,-1,-1,-1,-1,-1,-1,-1,-1,-1,-1,-1,-1,-1,-1,35,55,52,53,53,53,53,54,-1,-1,-1,-1,-1,-1,-1,1,-1,5,0,-1,-1,-1,45,33,33,33,33,33,33,33,33,33,33,33,33,33,33,22,42,-1,-1,-1,-1,-1,-1,-1,-1,-1,-1,-1,-1,-1,-1,45,33,33,33,33,33,33,33,33,33,33,33,33,33,33,32,1,-1,5,0,-1,-1,-1,-1,-1,-1,-1,-1,-1,-1,35,55,33,33,33,33,33,33,33,33,33,33,33,33,33,33,33,33
33,33,33,33,33,32,-1,-1,-1,-1,-1,-1,-1,-1,-1,-1,-1,-1,-1,-1,-1,-1,-1,-1,-1,-1,35,55,33,33,33,33,33,33,52,54,-1,-1,-1,-1,-1,-1,-1,5,1,3,-1,-1,35,55,33,33,33,33,33,33,33,33,33,33,33,33,33,22,42,-1,-1,-1,-1,-1,-1,-1,-1,-1,-1,-1,-1,-1,-1,-1,45,33,33,33,33,33,33,33,33,33,33,33,33,33,33,32,-1,5,1,3,-1,-1,-1,-1,-1,-1,-1,-1,-1,-1,45,33,33,33,33,33,33,33,33,33,33,33,33,33,33,33,33,33
33,33,33,33,33,32,9,-1,-1,-1,-1,-1,-1,-1,-1,-1,-1,-1,-1,-1,-1,-1,-1,-1,19,-1,45,33,33,33,33,33,33,33,33,32,-1,-1,-1,-1,-1,-1,-1,-1,4,-1,0,35,55,33,33,33,33,33,33,33,33,33,33,33,33,33,22,42,-1,-1,-1,-1,-1,-1,-1,-1,-1,-1,-1,-1,-1,-1,-1,-1,45,33,33,33,33,33,33,33,33,33,33,33,33,33,33,32,-1,-1,4,-1,0,-1,-1,-1,-1,-1,-1,15,16,-1,45,33,33,33,33,33,33,33,33,33,33,33,33,33,33,33,33,33
33,33,33,33,33,32,-1,-1,-1,-1,-1,-1,-1,-1,-1,-1,-1,-1,-1,-1,-1,-1,-1,-1,-1,-1,45,33,33,33,33,33,33,33,33,32,-1,-1,-1,-1,-1,-1,-1,-1,-1,-1,-1,45,33,33,33,33,33,33,33,33,33,33,33,33,33,33,32,-1,-1,-1,-1,-1,-1,-1,0,-1,-1,-1,-1,-1,-1,-1,-1,-1,45,33,33,33,33,33,33,33,33,33,33,33,33,33,22,42,-1,-1,-1,-1,-1,-1,-1,-1,-1,-1,-1,-1,-1,-1,23,25,33,33,33,33,33,33,33,33,33,33,33,33,33,33,33,33
33,33,33,33,33,32,-1,19,-1,-1,-1,-1,-1,-1,-1,-1,-1,-1,-1,-1,-1,-1,-1,-1,-1,35,55,33,33,33,33,33,33,33,33,32,-1,-1,-1,-1,-1,-1,-1,-1,-1,-1,35,55,33,33,33,33,33,33,33,33,33,33,33,33,33,22,42,-1,-1,-1,-1,-1,0,-1,-1,-1,-1,-1,-1,-1,-1,-1,-1,-1,45,33,33,33,33,33,33,33,33,33,33,33,22,24,42,-1,-1,-1,-1,-1,-1,-1,-1,-1,-1,-1,-1,-1,-1,9,-1,23,24,25,33,33,33,33,33,33,33,33,33,33,33,33,33,33
33,33,33,33,33,32,-1,-1,-1,-1,-1,-1,-1,-1,-1,-1,-1,-1,-1,-1,-1,-1,-1,-1,-1,45,33,33,33,33,33,33,33,33,33,32,-1,-1,-1,-1,0,-1,-1,-1,-1,35,55,33,33,33,33,33,33,33,33,33,33,33,33,33,33,32,-1,-1,-1,-1,-1,-1,-1,-1,-1,-1,-1,-1,-1,-1,-1,-1,1,-1,45,33,33,33,33,33,33,33,33,33,33,22,42,-1,-1,-1,-1,-1,-1,-1,-1,-1,-1,-1,-1,-1,-1,-1,-1,-1,-1,-1,-1,23,25,33,33,33,33,33,33,33,33,33,33,33,33,33
33,33,33,33,33,32,-1,-1,-1,-1,-1,-1,-1,-1,-1,-1,-1,-1,-1,-1,-1,-1,-1,-1,35,55,33,33,33,33,33,33,33,33,33,32,-1,-1,-1,-1,-1,-1,-1,-1,35,55,33,33,33,33,33,33,33,33,33,33,33,33,33,33,33,32,-1,-1,-1,-1,-1,-1,-1,-1,-1,-1,-1,-1,-1,-1,-1,-1,-1,-1,45,33,33,33,33,33,33,33,33,33,33,32,-1,-1,-1,-1,-1,-1,-1,-1,-1,-1,-1,-1,-1,-1,-1,-1,-1,-1,-1,-1,0,-1,23,25,33,33,33,33,33,33,33,33,33,33,33,33
33,33,33,33,33,32,-1,-1,-1,-1,-1,-1,-1,-1,-1,-1,-1,-1,-1,-1,-1,-1,-1,-1,45,33,33,33,33,33,33,33,33,33,33,32,-1,-1,-1,-1,-1,-1,-1,-1,45,33,33,33,33,33,33,33,33,33,33,33,33,33,33,33,33,32,-1,-1,-1,-1,-1,-1,-1,-1,-1,-1,-1,-1,-1,-1,-1,-1,-1,-1,45,33,33,33,33,33,33,33,33,33,33,32,-1,-1,-1,-1,-1,-1,-1,-1,-1,-1,-1,-1,-1,-1,-1,-1,-1,-1,-1,-1,-1,-1,2,45,33,33,33,33,33,33,33,33,33,33,33,33
33,33,33,33,33,32,-1,-1,-1,0,-1,-1,-1,-1,-1,-1,-1,-1,-1,-1,-1,-1,-1,35,55,33,33,33,33,33,33,33,33,33,33,32,-1,-1,-1,-1,-1,-1,-1,-1,45,33,33,33,33,33,33,33,33,33,33,33,33,33,33,33,33,32,-1,-1,-1,-1,-1,-1,-1,-1,-1,-1,-1,-1,-1,-1,-1,-1,-1,-1,45,33,33,33,33,33,33,33,33,33,33,32,-1,3,-1,-1,-1,-1,-1,-1,-1,-1,-1,-1,-1,-1,-1,-1,-1,-1,1,-1,5,0,-1,23,25,33,33,33,33,33,33,33,33,33,33,33
33,33,33,33,22,42,-1,-1,-1,-1,-1,-1,2,-1,-1,-1,-1,-1,-1,-1,-1,-1,-1,45,33,33,33,33,33,33,33,33,33,33,22,42,-1,-1,-1,-1,-1,-1,-1,-1,23,25,33,33,33,33,33,33,33,33,33,33,33,33,33,33,33,32,-1,1,-1,-1,-1,-1,-1,-1,-1,-1,-1,-1,-1,-1,-1,-1,-1,-1,45,33,33,33,33,33,33,33,33,33,33,32,-1,-1,-1,-1,-1,-1,-1,-1,-1,-1,-1,-1,-1,-1,-1,-1,-1,-1,-1,5,1,3,-1,-1,45,33,33,33,33,33,33,33,33,33,33,33
33,33,33,22,42,-1,-1,-1,1,-1,5,0,-1,-1,-1,-1,-1,-1,-1,-1,-1,-1,35,55,33,33,33,33,33,33,33,33,33,33,32,-1,-1,0,-1,-1,-1,-1,-1,-1,-1,23,25,33,33,33,33,33,33,33,33,33,33,33,33,33,33,32,-1,-1,-1,-1,-1,-1,-1,-1,-1,-1,-1,-1,-1,-1,-1,-1,-1,-1,45,33,33,33,33,33,33,33,33,33,33,52,53,53,54,-1,-1,-1,-1,-1,-1,-1,4,-1,-1,-1,-1,-1,-1,-1,-1,-1,4,-1,0,-1,45,33,33,33,33,33,33,33,33,33,33,33
33,33,33,32,-1,-1,-1,-1,-1,5,1,3,-1,-1,-1,-1,-1,-1,-1,-1,-1,35,55,33,33,33,33,33,33,33,33,33,33,22,42,-1,-1,-1,-1,-1,-1,-1,-1,9,-1,-1,23,24,25,33,33,33,33,33,33,33,33,33,33,33,33,32,-1,-1,-1,-1,-1,-1,-1,-1,-1,-1,-1,-1,-1,-1,-1,-1,-1,-1,45,33,33,33,33,33,33,33,33,33,33,33,33,33,52,53,54,-1,-1,-1,-1,2,0,3,1,1,-1,-1,-1,-1,-1,-1,-1,-1,0,-1,45,33,33,33,33,33,33,33,33,33,33,33
33,33,33,32,-1,-1,-1,-1,-1,-1,4,-1,0,0,-1,-1,-1,-1,-1,-1,-1,45,33,33,33,33,33,33,33,33,33,33,22,42,-1,-1,-1,-1,-1,-1,-1,-1,-1,-1,-1,-1,-1,-1,45,33,33,33,33,33,33,33,33,33,33,33,33,32,-1,-1,-1,-1,-1,-1,-1,-1,-1,-1,-1,-1,-1,-1,-1,-1,-1,-1,45,33,33,33,33,33,33,33,33,33,33,33,33,33,33,33,32,-1,-1,-1,-1,-1,3,1,4,2,-1,-1,-1,-1,-1,-1,-1,-1,-1,-1,23,25,33,33,33,33,33,33,33,33,33,33
33,33,22,42,-1,-1,-1,-1,-1,-1,-1,-1,-1,-1,-1,-1,-1,-1,-1,9,35,55,33,33,33,33,33,33,33,22,24,24,42,-1,-1,-1,-1,-1,-1,-1,-1,-1,-1,-1,-1,-1,-1,-1,45,33,33,33,33,33,33,33,33,33,33,33,33,32,-1,-1,-1,-1,-1,-1,-1,-1,-1,-1,-1,-1,-1,-1,-1,-1,-1,-1,23,25,33,33,33,33,33,33,33,33,33,33,33,33,33,33,52,54,-1,-1,-1,-1,2,-1,-1,-1,-1,-1,-1,-1,-1,-1,-1,-1,-1,-1,-1,23,25,33,33,33,33,33,33,33,33,33
33,33,32,-1,-1,-1,-1,-1,-1,-1,-1,-1,-1,-1,-1,-1,-1,-1,-1,35,55,33,33,33,33,33,33,33,22,42,-1,-1,-1,-1,-1,-1,-1,-1,-1,-1,-1,-1,-1,-1,15,16,-1,35,55,33,33,33,33,33,33,33,33,33,33,33,33,32,-1,-1,-1,-1,-1,-1,-1,-1,-1,-1,-1,-1,-1,-1,-1,-1,-1,-1,-1,45,33,33,33,33,33,33,33,33,33,33,33,33,33,33,33,32,-1,-1,-1,-1,-1,-1,-1,-1,-1,-1,-1,-1,-1,-1,-1,-1,-1,-1,-1,-1,45,33,33,33,33,33,33,33,33,33
33,33,32,-1,-1,-1,-1,-1,-1,-1,-1,-1,-1,-1,-1,-1,-1,-1,2,45,33,33,33,33,33,33,33,33,32,-1,-1,-1,-1,-1,-1,-1,-1,-1,0,-1,-1,-1,-1,-1,-1,-1,35,55,33,33,33,33,33,33,33,33,33,33,33,33,33,32,-1,-1,-1,-1,-1,-1,-1,-1,-1,-1,-1,-1,-1,-1,-1,-1,-1,-1,-1,23,25,33,33,33,33,33,33,33,33,33,33,33,33,33,33,32,-1,-1,-1,-1,-1,-1,-1,-1,-1,-1,-1,-1,-1,-1,-1,-1,-1,-1,-1,-1,23,25,33,33,33,33,33,33,33,33
33,33,32,-1,-1,-1,-1,-1,-1,-1,-1,-1,-1,-1,-1,-1,-1,-1,35,55,33,33,33,33,33,33,33,22,42,-1,-1,-1,-1,-1,-1,-1,-1,-1,-1,-1,-1,35,53,53,53,53,55,33,33,33,33,33,33,33,33,33,33,33,33,33,33,32,-1,-1,-1,-1,-1,-1,-1,-1,-1,-1,-1,-1,-1,-1,-1,-1,-1,-1,-1,-1,45,33,33,33,33,33,33,33,33,33,33,33,33,33,33,52,54,-1,-1,-1,-1,-1,-1,-1,-1,-1,-1,-1,-1,-1,-1,-1,-1,-1,-1,-1,-1,45,33,33,33,33,33,33,33,33
33,33,32,-1,9,-1,-1,-1,-1,-1,-1,-1,-1,-1,-1,-1,-1,-1,45,33,33,33,33,33,33,33,33,32,-1,-1,-1,-1,-1,-1,-1,-1,-1,-1,-1,-1,35,55,33,33,33,33,33,33,33,33,33,33,22,24,24,24,25,33,33,33,33,52,54,-1,-1,-1,-1,-1,-1,-1,-1,-1,-1,-1,-1,-1,-1,-1,-1,-1,-1,-1,23,25,33,33,33,33,33,33,33,33,33,33,33,33,33,33,32,-1,-1,-1,-1,-1,-1,-1,-1,-1,-1,-1,-1,-1,-1,-1,-1,-1,-1,-1,-1,23,25,33,33,33,33,33,33,33
33,33,32,-1,-1,-1,-1,-1,-1,-1,-1,-1,-1,-1,-1,-1,-1,-1,45,33,33,33,33,33,33,33,33,32,-1,-1,-1,-1,-1,-1,-1,-1,-1,-1,-1,-1,45,33,33,33,33,33,33,33,33,33,33,33,32,-1,-1,-1,45,33,33,33,33,33,52,54,-1,-1,-1,-1,-1,-1,-1,-1,-1,-1,-1,-1,-1,-1,-1,-1,-1,19,-1,45,33,33,33,33,33,33,33,33,33,33,33,33,33,33,32,-1,-1,-1,-1,-1,-1,-1,-1,-1,-1,-1,-1,-1,-1,-1,-1,-1,-1,-1,-1,-1,45,33,33,33,33,33,33,33
33,33,32,9,-1,-1,-1,-1,-1,-1,-1,-1,-1,-1,0,-1,-1,-1,45,33,33,33,33,33,33,33,33,32,-1,-1,-1,-1,-1,-1,-1,-1,-1,-1,-1,-1,45,33,33,33,33,33,33,33,33,33,22,24,42,-1,-1,-1,23,25,33,33,33,33,33,52,54,-1,-1,-1,-1,-1,-1,-1,-1,-1,-1,-1,-1,-1,-1,-1,-1,-1,-1,45,33,33,33,33,33,33,33,33,33,33,33,33,33,33,32,-1,-1,-1,-1,-1,-1,-1,-1,-1,-1,-1,-1,-1,-1,-1,-1,-1,1,-1,-1,-1,45,33,33,33,33,33,33,33
33,33,32,-1,-1,-1,-1,-1,-1,-1,-1,-1,-1,0,-1,-1,-1,-1,45,33,33,33,33,33,33,33,33,32,-1,-1,-1,-1,-1,-1,-1,-1,-1,-1,-1,-1,23,25,33,33,33,33,33,33,33,22,42,-1,-1,-1,-1,-1,-1,23,25,33,33,33,33,33,52,54,-1,-1,-1,-1,-1,-1,-1,-1,-1,-1,-1,-1,-1,-1,-1,-1,-1,45,33,33,33,33,33,33,33,33,33,33,33,33,33,33,32,-1,-1,-1,-1,-1,-1,-1,-1,-1,-1,-1,-1,-1,-1,-1,-1,-1,-1,-1,-1,-1,45,33,33,33,33,33,33,33
33,33,32,-1,-1,-1,-1,-1,-1,-1,-1,-1,-1,-1,-1,-1,-1,-1,45,33,33,33,33,33,33,33,33,32,-1,-1,-1,-1,-1,-1,-1,-1,-1,-1,-1,-1,-1,45,33,33,33,33,33,33,33,32,-1,-1,-1,-1,-1,-1,-1,-1,45,33,33,33,33,33,33,52,54,-1,-1,-1,-1,-1,-1,-1,-1,-1,0,-1,-1,-1,-1,-1,19,45,33,33,33,33,33,33,33,33,33,33,33,33,33,33,32,-1,-1,-1,-1,-1,-1,-1,-1,-1,-1,-1,-1,-1,-1,-1,-1,-1,-1,-1,35,53,55,33,33,33,33,33,33,33
33,33,32,2,-1,-1,-1,-1,-1,-1,-1,-1,-1,-1,-1,-1,-1,-1,45,33,33,33,33,33,33,33,33,32,-1,-1,-1,-1,-1,-1,-1,-1,-1,-1,-1,-1,-1,23,25,33,33,33,33,33,22,42,-1,-1,-1,-1,-1,-1,-1,-1,45,33,33,33,33,33,33,33,52,53,54,-1,-1,-1,-1,-1,-1,-1,-1,-1,-1,-1,-1,-1,35,55,33,33,33,33,33,33,33,33,33,33,33,33,33,33,32,-1,-1,-1,-1,-1,2,-1,-1,0,-1,-1,35,53,53,53,53,53,53,53,55,33,33,33,33,33,33,33,33,33
33,33,52,54,-1,-1,-1,-1,-1,-1,-1,-1,-1,-1,-1,-1,-1,-1,45,33,33,33,33,33,33,33,33,32,-1,2,-1,-1,-1,-1,-1,-1,-1,-1,-1,-1,-1,-1,45,33,33,33,33,33,32,-1,-1,-1,-1,-1,-1,-1,-1,-1,45,33,33,33,33,33,33,33,33,33,52,54,-1,-1,-1,-1,-1,-1,-1,-1,-1,-1,-1,-1,45,33,33,33,33,33,33,33,33,33,33,33,33,33,33,22,42,-1,1,-1,5,0,-1,-1,-1,-1,-1,35,55,33,33,33,33,33,33,33,33,33,33,33,33,33,33,33,33,33
33,33,33,52,54,-1,-1,-1,-1,-1,-1,-1,-1,-1,-1,-1,-1,-1,45,33,33,33,33,33,33,33,33,32,-1,-1,-1,-1,-1,-1,-1,-1,-1,-1,-1,-1,-1,-1,23,25,33,33,33,33,32,-1,-1,-1,-1,-1,-1,-1,1,-1,45,33,33,33,33,33,33,33,33,33,33,52,53,54,-1,-1,-1,-1,-1,-1,-1,-1,-1,35,55,33,33,33,33,33,33,33,22,24,24,24,24,24,24,42,-1,-1,-1,5,1,3,-1,-1,-1,-1,35,55,33,33,33,33,33,33,33,33,33,33,33,33,33,33,33,33,33,33
33,33,33,33,52,54,-1,-1,-1,-1,-1,-1,-1,-1,-1,-1,-1,-1,45,33,33,33,33,33,33,33,33,52,54,-1,-1,-1,-1,-1,-1,-1,-1,-1,-1,-1,-1,-1,-1,45,33,33,33,33,32,-1,-1,-1,-1,-1,-1,-1,-1,-1,23,24,24,24,24,24,25,33,33,33,33,33,33,52,54,-1,-1,-1,-1,-1,-1,35,53,55,33,33,33,33,33,33,33,22,42,-1,-1,-1,-1,-1,-1,-1,-1,-1,-1,-1,4,-1,0,-1,-1,-1,45,33,33,33,33,33,33,33,33,33,33,33,33,33,33,33,33,33,33,33
33,33,33,33,33,52,54,-1,-1,-1,-1,-1,-1,-1,-1,-1,-1,35,55,33,33,33,33,33,33,33,33,33,52,54,-1,-1,-1,-1,-1,-1,-1,-1,-1,-1,-1,-1,-1,45,33,33,33,33,32,-1,-1,-1,-1,-1,-1,-1,-1,-1,-1,-1,-1,-1,-1,-1,23,25,33,33,33,33,33,33,52,53,53,53,53,53,53,55,33,33,33,33,33,33,33,33,22,42,-1,-1,9,-1,-1,3,-1,-1,-1,-1,-1,-1,-1,-1,-1,-1,-1,-1,45,33,33,33,33,33,33,33,33,33,33,33,33,33,33,33,33,33,33,33
33,33,33,33,33,33,52,54,-1,-1,-1,-1,-1,-1,-1,-1,35,55,33,33,33,33,33,33,33,33,33,33,33,52,53,53,53,54,-1,9,-1,-1,-1,-1,-1,-1,-1,45,33,33,33,33,52,54,-1,-1,1,-1,-1,-1,-1,-1,-1,-1,-1,-1,-1,-1,-1,23,24,25,33,33,33,33,33,33,33,33,33,33,33,33,33,33,33,33,33,33,33,22,42,-1,-1,-1,-1,-1,-1,-1,-1,-1,-1,-1,-1,-1,-1,-1,-1,-1,-1,-1,45,33,33,33,33,33,33,33,33,33,33,33,33,33,33,33,33,33,33,33
33,33,33,33,33,33,33,52,54,-1,-1,-1,-1,-1,-1,35,55,33,33,33,33,33,33,33,33,33,33,33,33,33,33,33,33,52,53,54,-1,-1,-1,-1,-1,-1,-1,45,33,33,33,33,33,52,54,-1,-1,-1,-1,-1,-1,-1,-1,-1,-1,-1,-1,-1,0,2,-1,23,24,25,33,33,33,33,33,33,33,33,33,33,33,33,33,33,33,33,22,42,-1,-1,-1,-1,-1,-1,-1,-1,-1,-1,-1,-1,-1,-1,-1,-1,-1,15,16,-1,45,33,33,33,33,33,33,33,33,33,33,33,33,33,33,33,33,33,33,33
33,33,33,33,33,33,33,33,52,54,-1,-1,-1,-1,35,55,33,33,33,33,33,33,33,33,33,33,33,33,33,33,33,33,33,33,33,32,-1,-1,-1,-1,-1,-1,-1,45,33,33,33,33,33,33,32,-1,-1,-1,-1,-1,-1,-1,-1,-1,-1,1,-1,5,0,-1,-1,-1,-1,23,24,24,25,33,33,33,33,33,33,33,22,24,24,24,24,24,42,-1,-1,-1,-1,-1,-1,-1,-1,-1,-1,-1,-1,-1,-1,-1,-1,-1,-1,-1,2,9,45,33,33,33,33,33,33,33,33,33,33,33,33,33,33,33,33,33,33,33
33,33,33,33,33,33,33,33,33,52,53,53,53,53,55,33,33,33,33,33,33,33,33,33,33,33,33,33,33,33,33,33,33,33,33,32,-1,-1,-1,-1,-1,-1,-1,45,33,33,33,33,33,33,52,54,-1,-1,-1,-1,-1,-1,-1,-1,-1,-1,5,1,3,-1,-1,-1,-1,-1,-1,-1,23,24,24,24,24,24,24,24,42,-1,-1,-1,-1,0,-1,-1,2,-1,-1,-1,-1,-1,-1,-1,-1,-1,19,-1,-1,-1,1,-1,5,0,-1,-1,45,33,33,33,33,33,33,33,33,33,33,33,33,33,33,33,33,33,33,33
33,33,33,33,33,33,33,33,33,33,33,33,33,33,33,33,33,33,33,33,33,33,33,33,33,33,33,33,33,33,33,33,33,33,33,52,54,-1,-1,-1,-1,-1,-1,45,33,33,33,33,33,33,33,52,53,53,54,-1,-1,-1,-1,-1,-1,-1,-1,4,-1,0,-1,-1,-1,-1,-1,-1,-1,-1,-1,-1,-1,-1,-1,-1,-1,-1,3,-1,1,-1,5,0,-1,-1,-1,-1,-1,-1,-1,35,53,53,53,54,-1,-1,0,5,1,3,-1,-1,45,33,33,33,33,33,33,33,33,33,33,33,33,33,33,33,33,33,33,33
33,33,33,33,33,33,33,33,33,33,33,33,33,33,33,33,33,33,33,33,33,33,33,33,33,33,33,33,33,33,33,33,33,33,33,33,52,53,53,53,53,53,53,55,33,33,33,33,33,33,33,33,33,33,52,53,54,-1,-1,-1,-1,3,-1,-1,-1,-1,-1,-1,-1,-1,-1,-1,-1,-1,-1,-1,-1,-1,-1,-1,-1,-1,-1,-1,-1,5,1,3,-1,-1,-1,-1,-1,35,53,55,33,33,33,52,53,54,-1,-1,4,-1,0,3,45,33,33,33,33,33,33,33,33,33,33,33,33,33,33,33,33,33,33,33
33,33,33,33,33,33,33,33,33,33,33,33,33,33,33,33,33,33,33,33,33,33,33,33,33,33,33,33,33,33,33,33,33,33,33,33,33,33,33,33,33,33,33,33,33,33,33,33,33,33,33,33,33,33,33,33,52,53,53,53,53,53,53,53,53,53,53,54,-1,-1,-1,-1,-1,-1,-1,-1,-1,-1,-1,-1,-1,0,-1,-1,-1,-1,4,-1,0,-1,-1,-1,35,55,33,33,33,33,33,33,33,52,53,53,53,53,53,53,55,33,33,33,33,33,33,33,33,33,33,33,33,33,33,33,33,33,33,33
33,33,33,33,33,33,33,33,33,33,33,33,33,33,33,33,33,33,33,33,33,33,33,33,33,33,33,33,33,33,33,33,33,33,33,33,33,33,33,33,33,33,33,33,33,33,33,33,33,33,33,33,33,33,33,33,33,33,33,33,33,33,33,33,33,33,33,52,54,-1,-1,-1,9,-1,35,53,53,53,53,53,53,53,53,53,53,53,53,53,53,53,53,53,55,33,33,33,33,33,33,33,33,33,33,33,33,33,33,33,33,33,33,33,33,33,33,33,33,33,33,33,33,33,33,33,33,33,33,33
33,33,33,33,33,33,33,33,33,33,33,33,33,33,33,33,33,33,33,33,33,33,33,33,33,33,33,33,33,33,33,33,33,33,33,33,33,33,33,33,33,33,33,33,33,33,33,33,33,33,33,33,33,33,33,33,33,33,33,33,33,33,33,33,33,33,33,33,52,53,53,53,53,53,55,33,33,33,33,33,33,33,33,33,33,33,33,33,33,33,33,33,33,33,33,33,33,33,33,33,33,33,33,33,33,33,33,33,33,33,33,33,33,33,33,33,33,33,33,33,33,33,33,33,33,33,33,33
